ply
format ascii 1.0
comment VCGLIB generated
element vertex 1794
property float x
property float y
property float z
element face 0
property list uchar int vertex_indices
end_header
-6.28542 3.71033 4.24656 
1.73933 2.25006 -22.8499 
-3.31476 -2.14385 -19.3489 
-15.7791 3.05678 -0.130886 
-7.64123 0.640387 4.02661 
1.87812 1.66609 -2.32766 
1.01626 -0.954444 -25.7197 
6.35205 -3.01727 -7.11481 
1.3217 -1.27084 1.94493 
-8.75396 6.03926 -4.83401 
-12.073 4.48044 6.67647 
-8.91446 -0.463633 8.69893 
-11.2006 4.82618 0.139146 
6.82372 -3.9592 -19.7887 
4.66447 6.29739 -25.363 
-7.70704 -0.6758 2.51351 
-10.8208 2.2449 2.57782 
-5.69195 -0.821155 -7.20811 
1.44532 3.51477 -25.9141 
-9.9206 -0.662954 0.803349 
2.13225 1.24971 4.21702 
-0.404504 -1.58958 7.48972 
0.0553061 -1.97798 -1.5375 
-16.8122 3.99416 0.886941 
-10.4082 4.70922 -16.3477 
0.2918 -2.03147 -2.89195 
-9.79187 0.391191 -19.0717 
-5.76989 2.50374 5.52642 
3.32844 6.85788 5.21962 
0.433065 5.46853 -25.758 
-10.5904 4.78927 -1.01463 
2.11511 -1.62549 9.34222 
12.5211 -4.03304 -6.71642 
-8.76862 4.9408 -22.4076 
-9.67853 4.63802 -1.64922 
-9.84894 4.88006 -18.2444 
-5.31034 3.47793 6.12138 
14.7569 -4.17537 -9.70665 
-8.23958 -1.60562 -28.1389 
-7.89175 1.94108 -18.6485 
-0.0886863 -1.95426 -2.01222 
12.1267 6.04348 -5.94823 
0.15979 0.479859 -22.8079 
3.7612 6.34942 -25.8548 
9.03445 -0.154932 -0.6909 
-4.12341 4.44149 7.15132 
-1.48348 -3.13167 -28.2826 
-11.3038 -0.464357 1.68194 
-5.22943 4.25155 8.53619 
-10.5072 -0.349545 6.29703 
-8.45709 3.305 -2.95916 
12.9152 -4.85941 -20.7047 
-13.0746 6.28175 -2.33647 
-9.96147 4.73975 -18.3956 
-14.1794 -0.523249 -7.59237 
2.45739 -3.41555 -22.533 
4.44472 -3.26793 -18.3516 
10.7934 5.04615 -0.444519 
15.3237 -4.67627 -12.6099 
10.2489 -4.6079 -25.4039 
-9.81445 6.59466 5.56985 
-6.44258 2.38646 8.96559 
9.20559 -3.43224 -13.2002 
9.5081 -3.82583 -10.356 
8.86325 -3.86402 -23.1705 
4.95604 1.02642 -3.15444 
-12.9842 -0.367168 -5.67987 
-10.7579 0.897463 -12.8239 
-7.30469 -0.342651 -17.6604 
0.086232 1.25431 -24.8027 
-1.87641 -2.33152 -15.7961 
9.19904 1.59163 -7.64143 
4.74291 3.58574 9.26053 
-15.4626 -0.113039 -2.48714 
12.0806 -4.38821 -15.3679 
-5.85142 -1.72589 -13.8 
3.84682 0.960807 -19.4289 
-0.123431 -1.46929 9.28692 
-12.3686 3.36016 3.37663 
-8.92091 6.34875 7.00539 
-13.3193 -0.460773 -8.7818 
-2.8591 -2.33189 -22.7829 
-18.1456 0.355117 6.12166 
1.57831 2.65074 -25.584 
6.05689 -3.37868 -14.7305 
-5.55086 5.78517 5.02335 
-9.71677 0.218929 -19.3025 
9.74654 -4.00093 -12.8281 
-9.9969 3.78114 -0.316361 
15.7879 -3.93091 -1.59642 
7.12545 -3.42676 -12.1513 
3.40121 4.955 -26.236 
-0.0873997 -2.39527 -13.7666 
-9.07047 4.99922 0.937785 
-14.6421 -0.010687 5.33653 
8.06358 3.45442 6.23688 
2.37485 0.972916 -2.21855 
-16.1916 2.77323 -0.259126 
-15.6653 -0.00884326 6.84244 
-3.12996 -1.25984 -28.5875 
-7.07946 2.57932 8.57573 
-0.120751 1.53873 -25.6435 
-13.16 -0.39158 -1.43489 
8.8969 -3.76368 -11.4283 
-8.03774 2.6481 -17.9805 
-10.5257 0.891594 -13.0415 
0.723865 4.37487 -24.2733 
5.53183 -3.08738 -8.86938 
-16.5172 4.67387 4.28511 
-9.3395 5.2406 -0.156235 
18.4502 -4.66808 -5.16604 
-4.55737 6.98124 0.907103 
9.49059 -2.07569 -13.9592 
0.721136 1.37675 1.66484 
2.73653 -3.20412 -23.2202 
2.40482 1.62175 -23.2839 
-7.52538 5.86498 -7.62322 
4.48013 1.59413 2.91338 
0.457212 0.100985 2.0273 
9.3444 6.38944 -25.7001 
-8.63228 4.83421 -16.381 
-9.15029 5.74541 -4.3552 
-10.3335 5.471 -15.6535 
-3.59172 -1.06098 8.90193 
11.1408 2.26801 -5.11856 
-8.68546 3.83837 -5.03589 
1.29616 2.02942 -22.2115 
-9.30794 5.13304 -15.9142 
8.94278 2.25766 -1.68779 
3.11995 -2.39218 -2.68628 
-4.97191 1.51458 -19.0455 
9.57577 -2.67464 -24.9346 
-9.51451 5.29886 -4.23892 
-9.77465 4.9224 -17.7412 
6.58294 5.41356 -20.4603 
-1.03102 0.925753 -25.7019 
-15.4876 0.0942475 4.53717 
-15.635 3.16334 -0.420958 
-10.4631 -1.25543 -19.0639 
5.22184 1.04457 -1.664 
-8.02527 6.45106 -7.48455 
-12.5016 4.94061 -0.0355046 
9.8704 -3.05935 2.36024 
-7.758 -0.99625 -2.74754 
-3.46953 6.88109 8.97308 
2.96891 2.53002 -0.0658732 
6.98417 5.72565 6.05917 
-3.18948 -2.15094 -18.7695 
-12.434 -0.595209 -5.47698 
-2.63311 -1.44398 6.0128 
3.45065 0.349401 2.1189 
-8.40756 3.3462 -2.66107 
-4.59483 1.09905 -16.2791 
4.87587 0.669597 -3.4869 
-9.45665 5.38658 -21.3311 
-5.66452 6.62397 5.38037 
10.924 -4.57844 -21.5198 
-7.63452 5.16996 4.20925 
4.98848 2.30145 -3.7242 
0.992119 5.62791 -23.1357 
-6.76865 -1.52934 -17.8982 
10.2554 5.67276 -4.29591 
-3.36825 -1.17818 -28.8201 
5.34636 -3.91338 -24.5747 
-9.53605 2.13681 1.56825 
-11.745 4.60745 6.98848 
-5.48677 -0.775177 5.9657 
-11.2547 1.65723 -12.9284 
13.9588 -1.9337 -10.1218 
2.8336 -2.4119 -3.48926 
-8.10525 -1.83014 -26.7472 
-11.3575 -0.141903 6.44404 
5.44054 4.07363 -4.06707 
2.45026 -2.92192 -14.1114 
6.59203 2.7636 -3.93308 
-11.7421 2.85045 -16.3335 
4.39221 6.02259 8.76744 
4.9051 6.44901 5.2232 
-9.08317 5.90036 -19.1222 
4.52465 2.0734 -0.887839 
-4.35749 6.12363 0.718389 
9.4279 -3.32217 -2.20762 
-15.0553 -0.0481086 0.339629 
-11.5224 1.63832 1.56099 
6.47553 2.61537 7.49774 
-7.02394 1.90206 4.2028 
0.637707 -1.34841 11.7819 
5.65375 2.38798 -3.73167 
-10.9451 -0.591661 -1.93411 
1.66857 0.702857 -4.69582 
6.36243 3.29502 6.33176 
-5.14003 -1.84045 -14.0947 
-11.3455 2.74411 -15.2836 
-6.35718 -1.72613 -17.1505 
11.0973 -0.0496936 -25.0991 
-7.21418 5.70635 -2.96287 
-4.98408 -1.88571 -19.9236 
-14.9417 3.90996 2.69604 
-5.51509 -0.850928 9.71374 
3.21292 0.618122 2.45648 
-0.000639126 -1.96489 2.56888 
0.938632 -1.64869 7.03083 
-7.43912 1.09014 -16.7915 
-7.43964 -1.08926 -2.26272 
3.68877 0.789335 1.4629 
5.47774 -2.57076 -3.13816 
-10.4757 4.4673 6.85577 
-4.25678 -2.28648 -25.3406 
6.57187 4.3152 4.42586 
-6.27807 4.41981 -3.40942 
2.9191 5.27558 -23.8654 
-12.6216 -0.573803 -9.28671 
2.77125 1.2 -2.02415 
-12.4807 3.23287 6.42144 
4.68237 0.534814 8.90554 
-1.68905 -1.42615 4.34582 
-0.696394 -1.64454 4.49229 
-7.01177 6.56402 0.396377 
12.2618 -4.33699 -10.9501 
1.24456 -2.20246 -0.395816 
1.03113 -2.91754 -20.897 
4.24094 -3.00866 -11.873 
-11.1721 2.76796 -17.1959 
-12.6245 5.7357 -0.0415212 
-1.27869 -1.30587 11.1387 
4.03643 -3.73447 -26.7459 
-14.7702 0.0710315 6.43219 
-0.702285 -2.24999 -8.64407 
7.71966 -2.83421 3.20712 
8.83783 -4.37775 -22.5748 
8.29855 6.7748 -9.03948 
4.0948 1.35095 3.85209 
10.6239 4.77443 -5.47384 
-11.1305 -0.155968 -1.38798 
3.66233 -1.54154 -19.3938 
-15.049 4.27619 2.34631 
-9.55303 -1.23602 -15.5545 
2.59961 3.85739 -26.5816 
7.20859 -3.7561 -17.4768 
-0.748862 4.57935 -24.6832 
0.368285 5.21757 -25.9823 
1.33112 -2.52184 -10.3239 
5.10487 5.09452 6.86313 
9.01331 -2.91099 4.82787 
3.89659 2.84619 3.60968 
-5.76809 -1.59118 -9.33537 
-6.96753 3.2728 2.60314 
0.417301 1.62428 -0.225885 
-10.3337 3.3131 -14.946 
-16.7397 0.260451 6.68005 
17.3264 -3.79593 -8.02316 
-2.45869 -0.269816 -1.48887 
8.44083 4.66865 6.15652 
-1.22515 2.73679 -26.1956 
-14.3118 -0.27045 -5.03823 
-6.51305 6.17555 -1.87748 
3.77601 3.085 2.13313 
8.7953 2.95065 -7.75434 
-6.88368 5.03932 -0.72788 
-0.810162 4.41075 -24.3478 
-9.83922 -0.355208 -19.0698 
7.55113 -3.64533 -11.7198 
2.03375 3.84937 -22.833 
3.4923 2.12681 5.36553 
5.05907 1.34577 -1.61279 
-7.08433 3.48495 2.33781 
8.85866 -4.14015 -15.6982 
7.73967 3.13903 -8.43041 
-12.4742 -0.470015 -4.96282 
9.0341 4.55975 -8.78772 
4.78149 -1.67444 -3.4416 
-13.0539 2.7517 2.22034 
-7.89233 2.65106 2.62394 
-1.84782 -1.58235 1.55002 
8.39869 -3.7524 -13.0843 
-3.41072 1.57344 -19.1462 
-2.85447 -2.17703 -15.4425 
0.386404 0.697567 -25.0023 
2.01329 4.73329 -25.6477 
16.554 -4.75441 -10.8572 
9.53497 1.94677 -0.609168 
9.96613 1.64808 -1.64303 
0.458527 5.26916 -23.6024 
-16.6483 0.204307 1.52267 
-7.42292 -1.38583 -9.87758 
3.56997 -0.62126 -18.9192 
9.5992 -3.56734 -12.3625 
3.63754 2.5909 3.95566 
6.16503 -2.42406 3.89089 
-10.5587 3.76558 6.3242 
-9.14119 -1.38184 -18.7229 
3.74127 -2.6087 -4.38622 
-14.3815 -0.349998 -6.9422 
-2.29292 -0.910153 10.4663 
8.05321 -3.61467 -12.4056 
10.6773 -3.90996 -9.59986 
-6.55013 5.26338 -26.2305 
-14.6177 -0.054162 1.45263 
6.92701 0.377538 7.47907 
-8.3153 5.30023 3.6428 
-14.485 1.82792 2.07827 
-7.9049 -1.26272 -12.1674 
2.78333 -2.86953 -11.4662 
-5.12987 -1.06098 4.13211 
-9.3298 4.70053 -22.3092 
8.88294 2.10074 -8.10698 
-13.5363 -0.29835 -1.46818 
-5.88172 0.403332 5.62221 
-10.6204 2.89527 -16.7592 
4.61247 3.83682 4.01259 
-7.65002 6.32583 -3.51063 
18.9622 -4.91175 -7.66963 
-10.3393 2.47369 -13.6977 
0.0447577 -1.98026 -0.572957 
0.948615 1.07014 -24.4176 
0.727636 1.95211 2.04037 
2.29784 -2.02723 5.37372 
-8.91747 6.1203 -20.1888 
-12.077 -0.686496 -10.8516 
6.42027 6.61716 -20.1335 
2.97802 -2.18552 -23.4552 
11.0887 4.4186 -5.33847 
9.43398 -0.303527 -25.0337 
-13.5344 6.64285 -0.409716 
-7.72395 6.10618 -0.315764 
-0.938693 -0.880238 1.18875 
13.7072 -4.67917 -15.3832 
6.73949 -3.55284 -14.1952 
-7.68061 2.77771 4.313 
4.8202 0.852911 -1.58453 
12.424 -4.84509 -20.0952 
-8.37998 -1.51421 -19.2601 
-10.1944 3.36854 -19.9475 
6.09327 -3.02065 -6.1314 
0.46993 5.88904 -23.6274 
7.21214 -3.57812 -15.4667 
-8.09279 -0.688729 6.31463 
5.70651 -3.01784 -6.78109 
3.15627 -3.0121 -14.2078 
-7.32606 -1.03314 -3.06223 
3.89783 2.61499 -0.247035 
-2.71881 -1.27603 9.00654 
-7.20432 2.68237 -17.9602 
-9.3631 4.56443 -23.0585 
5.44756 2.58232 -18.4347 
11.5666 3.88489 -4.88565 
-7.50787 6.93428 1.98384 
1.60917 2.15832 -23.8534 
-15.6296 5.28221 2.64352 
4.10339 4.89002 -25.1818 
0.493389 -1.65973 6.88947 
-10.2021 4.45297 -18.0635 
-12.3614 3.57283 6.56921 
-6.4153 -0.787462 7.91676 
-12.8199 5.01015 1.82931 
-4.23134 -1.32543 -3.71939 
0.496928 -0.715388 -26.5046 
-4.86637 -0.892261 8.33296 
2.67407 3.33808 -25.2235 
-7.21491 6.96074 1.09835 
14.0089 -2.06032 -10.0451 
10.5803 3.42549 -24.0046 
-0.471847 1.43324 -26.0039 
-11.5067 -0.534191 -0.0897699 
-10.2726 -0.925894 -8.1776 
-4.00876 -1.81072 -9.45437 
0.916382 4.06202 -25.4865 
-10.7263 -0.925356 -9.04803 
-12.8783 -0.66992 -11.4634 
-6.15673 4.34593 2.44525 
3.68771 4.79289 -23.5024 
10.8299 1.85249 -5.281 
4.06442 -2.15349 3.88506 
13.5448 -4.07569 -6.02522 
-11.1835 -0.700717 -2.58063 
13.8039 -4.82074 -18.6579 
13.7215 -3.12331 -10.3745 
-10.752 4.6303 -16.68 
-1.39166 -2.89443 -23.705 
-6.92393 0.598301 2.55755 
10.7972 3.49588 -23.6471 
-9.35224 5.19729 -21.5529 
-5.54913 4.7404 6.39592 
-5.58778 5.0652 0.68044 
-2.47464 -1.01923 -1.49209 
14.6861 -4.03401 -0.666115 
13.6513 -3.66115 -2.29575 
-6.84324 2.69157 8.59013 
-8.34281 -0.425971 -19.2604 
-12.8262 3.54628 4.55727 
-5.68109 3.87586 7.94446 
11.1789 -4.44306 -17.0039 
16.8225 -4.80431 -10.8869 
3.18352 5.60777 -25.4392 
2.59361 -3.26471 -19.0811 
7.90192 -4.44016 -24.3215 
11.459 -4.69775 -23.5045 
12.9343 -3.95813 -10.7718 
-1.7107 -1.0206 -0.144141 
4.45237 3.26838 -26.6534 
-6.1604 6.57006 -6.87231 
3.93641 3.82558 -25.2881 
-5.32751 4.51738 8.34941 
-0.950918 -3.1504 -26.8886 
4.38284 -4.04664 -27.1662 
10.7557 -4.70172 -24.3819 
10.3062 -4.72138 -25.0446 
-9.32899 4.70851 -19.724 
-9.23014 4.95963 -17.6403 
9.19631 -4.59576 -26.1246 
4.33609 -2.46732 -24.6928 
-11.7529 4.14122 4.09392 
9.33924 3.70205 -0.863879 
10.0283 -3.2508 -0.320227 
-7.44078 -0.643046 -16.3943 
-7.27645 -0.305651 -16.4924 
-1.83111 -1.10516 10.9883 
0.785748 -2.07509 -1.35023 
3.44023 -2.37507 1.28599 
-8.92429 -0.622658 4.14587 
-15.4377 0.0602253 2.83535 
0.576231 -1.44432 9.6939 
1.47489 -1.61183 9.28346 
2.8016 2.01213 -25.4667 
-5.18561 2.60439 5.60312 
-15.4916 5.96208 3.79753 
4.22939 2.01501 0.291604 
-8.88911 4.25202 4.78759 
-12.7357 -0.31958 0.228867 
1.26377 -1.69658 11.1261 
-0.0280988 2.96769 -23.6045 
6.30236 -3.85766 -19.4522 
18.6209 -4.81479 -7.13684 
-1.52023 -0.644072 0.826726 
4.23185 3.18856 -26.8667 
7.81042 -3.51365 -11.2633 
-2.42606 -1.77846 -29.1834 
-2.69782 -0.976269 11.3359 
2.65595 3.42232 -23.85 
-5.0691 -0.107658 -15.8922 
8.46945 -3.14299 -1.29571 
3.63812 -2.53123 -19.0345 
-16.7668 2.88948 2.14094 
-7.04692 -0.719887 -10.172 
-7.1532 -0.125537 -10.1471 
12.7999 5.48777 -3.54864 
-15.0053 -0.19047 -2.33056 
-7.44688 -0.590807 9.28235 
-4.34479 4.24145 7.62913 
2.64698 3.56042 3.6275 
7.06137 4.42779 4.83478 
13.9822 -4.87792 -20.134 
-4.94611 2.3608 8.10551 
-7.92168 6.14278 -27.2716 
6.60672 5.38115 -20.28 
8.42608 6.09284 -21.0492 
3.62241 6.0703 -24.0369 
11.8252 -4.22621 -11.3177 
-16.1751 2.64411 5.86105 
2.30293 4.29311 -24.2588 
-7.28165 5.90131 -1.07862 
10.9628 -3.24904 2.44627 
10.2304 -4.61233 -24.7351 
-2.0638 -1.29269 -28.515 
-4.50864 2.33802 7.13775 
-7.85772 -0.960284 -18.6968 
2.00956 -3.27287 -24.3825 
9.97105 -3.36248 -4.91864 
-7.76032 -0.759327 -18.9174 
11.5527 -3.29082 0.545357 
-13.4457 -0.287814 0.552222 
-7.73147 -0.544624 -18.8566 
-16.0164 -0.170611 -1.22715 
-12.0547 -0.324738 6.74134 
-7.79235 -0.410119 -18.8616 
-16.6231 0.0359592 5.54458 
-7.73765 -0.278419 -18.8626 
-16.7718 4.64921 4.54791 
4.21705 4.00833 4.00401 
-15.3605 4.66298 2.76877 
-10.8758 3.75666 -1.7914 
6.59796 6.16428 5.36794 
-13.4025 4.74916 -2.71274 
-15.103 5.9319 0.407639 
-13.8167 5.47101 -2.87198 
-2.74559 -1.59098 -2.67506 
-8.69828 -1.04391 -19.469 
10.0089 -4.48382 -20.2837 
-9.21051 -0.815301 1.16028 
-6.11155 -0.958 1.1625 
-3.90529 -1.09137 3.95122 
-7.93366 -0.845763 7.20339 
6.81856 -2.32081 6.31877 
1.565 1.07463 -25.4776 
-10.7636 1.92398 2.25157 
9.6438 2.13517 -24.5582 
10.4168 2.50259 -25.2148 
0.332716 3.92909 -26.6598 
-15.8475 4.82331 4.25088 
-13.3696 4.48535 2.928 
-12.3075 4.905 4.58099 
-8.17591 2.52773 -3.16965 
1.57022 5.44332 -24.9778 
-14.7422 5.45048 2.47384 
-11.273 6.96821 5.52901 
-1.22788 -1.91421 -2.10058 
-15.1333 -0.287564 -4.76107 
-0.622201 -1.81368 2.29393 
-16.642 0.0383064 1.97152 
0.0942031 -1.94417 2.65689 
-9.51643 -0.554689 3.53075 
-11.4209 -0.326827 4.51561 
-2.00092 -1.1377 2.50766 
-8.08455 -0.534388 8.11739 
-1.64969 -1.31997 6.68099 
7.05654 -2.51186 5.97224 
-0.71592 -1.42687 7.49913 
-4.69688 -0.827608 10.1499 
-15.7162 3.67116 5.08095 
-13.9728 3.27484 2.67738 
3.34691 5.59112 -25.6162 
-10.9732 5.63697 -17.7246 
-4.92019 2.61834 5.83674 
-10.7033 3.95892 5.79576 
9.9077 2.25133 -0.105688 
3.80969 2.20936 2.3055 
-12.3783 5.71276 4.97727 
-4.98491 4.50941 7.97375 
4.44129 4.34484 9.53819 
-13.5185 5.1785 -3.08333 
-7.45586 -0.852676 -14.0493 
-2.16338 -1.66453 0.40243 
-9.53117 -0.534175 4.82359 
-4.33403 -2.24407 -25.0035 
2.27855 1.70023 -22.7992 
4.08188 -3.23301 -15.0012 
5.95542 -3.41876 -13.785 
0.741963 -1.3265 0.693258 
5.89464 -3.54474 -16.4013 
12.6511 -3.89033 -5.06168 
9.06468 -4.18919 -17.2614 
-15.042 0.0925385 4.68636 
12.6643 -4.25586 -12.6015 
-0.377869 -2.9893 -26.2083 
-4.79363 -1.52868 -20.4926 
-2.48652 -2.74776 -28.8617 
14.9809 -4.75883 -16.6095 
17.0766 -5.0144 -14.711 
9.84243 -3.77648 -24.6746 
18.1572 -4.52511 -3.1625 
4.78413 0.860047 -1.36787 
4.08136 0.74236 -25.1555 
-12.027 3.19001 6.84156 
8.44574 0.318299 -26.2076 
-9.16701 5.23287 -21.0503 
-10.0202 4.72853 -12.631 
-8.03377 -0.97202 -0.0533902 
-8.06042 5.92983 -25.4848 
3.64859 3.4038 -26.2372 
-8.12187 4.88205 -17.0258 
4.44869 3.69874 -25.49 
3.18075 3.90707 -25.7707 
-4.61661 4.61938 8.18922 
13.7351 -1.32362 -10.3459 
5.2511 6.03184 -26.2113 
3.62005 6.0301 -23.7154 
-5.49753 6.49652 5.4133 
3.64631 1.8697 1.73387 
7.01784 3.40397 5.77081 
-4.65102 -2.18148 -22.0511 
-7.74795 -0.992098 -11.0178 
-7.53066 -0.901927 -10.9314 
-7.43893 0.163623 -10.9308 
-7.46595 0.144138 2.55654 
-16.2997 2.49063 -0.587086 
-9.19691 1.91312 1.2519 
-16.4051 3.98233 -0.176978 
-6.21836 2.35977 3.23247 
-6.44456 4.00755 2.51404 
-17.0908 6.53858 2.50825 
-10.4392 5.79572 -2.44123 
-10.4923 6.39703 -1.37513 
-0.0253553 0.139802 -25.1492 
-8.22334 -1.29923 -11.1499 
4.11738 -3.8103 -24.4726 
-9.93252 -0.490015 4.7253 
5.06539 -3.98723 -26.6811 
0.81699 -1.47367 10.6127 
2.26934 1.20251 -24.5747 
9.84738 0.473434 -24.5984 
-12.7555 5.32783 4.21126 
-6.73262 4.15951 4.30456 
-7.00896 5.62554 -26.3777 
3.28773 3.68104 -24.3848 
-10.1272 5.97162 -2.29235 
-7.03714 -0.719975 2.99678 
7.02882 -3.83858 -19.2461 
-16.6193 0.253531 5.51653 
10.0265 -4.32503 -18.1378 
10.8771 -4.55199 -21.702 
3.02393 -1.95054 7.29895 
15.0363 -4.64299 -13.0363 
15.581 -3.82462 -4.45863 
19.9241 -4.75116 -4.66855 
-7.47376 2.53431 3.32373 
10.0205 -0.110237 -24.8047 
2.49477 1.88685 -24.598 
-4.77188 5.33631 5.80975 
-8.97963 4.78842 1.27158 
2.9714 1.64627 -19.6976 
-9.37273 5.66983 -0.439705 
1.41591 1.98385 0.852481 
2.52627 3.53796 -23.5562 
-6.4693 -1.64703 -17.2859 
10.3086 2.85222 -24.3535 
4.16815 2.14818 0.387951 
8.09567 3.43773 5.82348 
-5.94469 6.83061 -0.156209 
11.5044 -4.02778 -10.1084 
-2.43365 -1.58748 -0.575055 
13.9891 -4.17104 -10.6741 
-8.04847 -0.624719 3.20386 
-2.15918 -0.789824 2.22223 
1.13331 1.42562 -26.6254 
-16.7604 0.189386 4.759 
-17.798 0.428802 5.86053 
-3.31291 -1.0647 10.2544 
2.71369 3.56319 -24.8831 
-0.86029 3.86927 -25.4574 
-6.88422 5.26826 -26.9271 
3.42329 5.48074 -25.5903 
-13.8458 2.86862 2.74463 
7.89576 6.40704 -21.1303 
-10.5064 4.51215 7.19408 
-9.0956 4.10771 3.20567 
-7.1979 -0.323356 -15.6662 
-14.2863 -0.134684 2.54652 
-5.9734 -2.03154 -21.9139 
-2.66783 -2.54885 -24.8673 
-15.1061 0.158997 7.13837 
-9.86745 1.21301 -13.0572 
-6.6773 4.4432 2.43065 
3.13596 3.55327 1.42873 
5.12679 3.9053 -2.74885 
-10.5592 5.02575 -2.80855 
10.6555 2.37464 -24.5744 
3.71039 2.4605 -19.3747 
-4.17644 -2.00616 -15.3069 
-11.8828 -0.940691 -12.1913 
8.06617 -3.49763 -9.97493 
14.3786 -3.94749 -8.88735 
-1.83333 -1.20174 11.1497 
6.17197 -0.13965 7.93053 
2.70145 1.34941 4.58396 
2.61186 2.90899 -25.2373 
2.42116 3.44246 -26.8613 
10.5748 0.684417 -24.9565 
-9.59736 2.09037 1.68273 
1.96783 2.27834 0.126758 
-10.5643 3.43872 5.8989 
10.5433 5.10875 -24.7436 
9.25659 3.48308 0.299172 
-13.3727 3.5907 3.32127 
3.28796 2.97385 2.08786 
-0.0655638 1.15792 -25.4673 
9.05121 3.56215 -0.907746 
-7.29842 3.04464 4.22377 
6.84857 4.29623 6.01559 
-12.5768 5.35631 4.54726 
11.491 4.50912 -5.95079 
6.8367 4.76358 4.69482 
0.497736 6.23583 -25.2754 
4.24808 5.64425 8.48733 
7.75276 5.85351 -19.6811 
6.27016 6.08892 7.14901 
-15.654 5.74361 3.6428 
4.94881 6.4565 8.36007 
-2.18015 -1.5673 0.00517315 
8.5297 5.36655 -8.01366 
-8.03466 4.54975 2.57346 
10.1825 -3.8958 -11.5881 
10.4503 -4.04653 -12.5855 
7.46163 -2.30231 3.97545 
10.1602 -2.95658 3.9069 
1.55895 -3.46609 -28.4142 
-8.01368 -0.28872 -13.2377 
-13.9631 -0.24181 -2.64819 
-7.84457 -0.278678 -13.2321 
-8.49192 2.42115 2.72734 
8.05463 0.890332 -7.23201 
-16.7854 4.12384 0.559611 
-4.79867 -1.66412 -8.31626 
2.05035 2.56818 -4.89834 
-3.45634 -1.16528 9.27621 
-13.9647 6.34955 2.76008 
-9.67139 5.29688 -1.0839 
-4.68998 6.46629 0.430757 
5.10091 2.08095 -18.6643 
9.84265 4.75878 -25.3316 
8.95042 4.44891 -24.8236 
1.26558 2.59122 -25.1299 
-7.80255 -1.01028 -4.89386 
-11.8965 -0.587257 -5.38294 
-8.32585 -1.17828 -19.584 
-14.8151 -0.339798 -5.15765 
-14.3171 -0.281401 -2.14534 
-9.95906 -0.679024 0.520968 
1.45425 -2.03354 1.13305 
-14.6729 -0.119633 1.5956 
-7.59809 2.51865 3.26758 
-4.64391 2.77772 6.12605 
-7.46329 2.56695 2.88647 
-6.42557 1.61089 3.05009 
2.74309 4.48589 -24.5397 
-12.742 3.87509 0.346041 
3.25106 5.17681 -23.5669 
5.71119 5.39894 7.91995 
-16.6375 5.62984 0.407463 
-7.17429 3.99951 2.62766 
-9.33228 5.32284 -20.725 
12.1995 6.01184 -5.78692 
-13.6843 6.08872 2.76181 
12.0997 6.34597 -3.51607 
0.989235 1.51422 1.4469 
-9.93146 4.78649 -18.1594 
-10.3707 3.99147 -15.2907 
-12.7598 5.4074 0.660237 
-7.71438 5.43127 3.62815 
-3.74937 -1.42708 0.826357 
2.00401 -2.03429 5.90103 
6.79481 -2.55351 4.69533 
1.74236 -1.92892 0.756794 
12.0287 -3.2794 2.74614 
3.91608 -2.09871 7.50786 
5.20818 -2.34152 7.36331 
11.7944 -4.2768 -12.596 
10.0988 -4.01372 -13.8901 
2.51675 -1.88116 8.04518 
5.49452 -2.32679 8.51235 
-1.4411 -1.40321 6.30466 
0.0595835 -1.50687 7.97866 
-0.944866 -1.46949 7.50738 
2.95405 -1.85325 9.4205 
3.0521 -1.85135 9.71496 
-4.9478 -1.99328 -15.5741 
0.506722 -1.56364 9.69464 
2.03569 -1.73363 10.569 
1.02708 -1.49782 10.6296 
-1.01685 -1.31671 10.5982 
-4.14512 -0.868959 -6.63205 
-4.68962 -0.985356 8.82714 
-4.11 -0.575739 -6.6326 
-10.28 -0.67346 0.721447 
-9.11069 -0.586819 2.91945 
-6.33845 -0.668334 9.96319 
-9.68889 -0.533284 3.77544 
-4.34678 -0.38474 -6.55659 
-8.46262 -0.444904 9.38319 
-11.1739 -0.293514 5.85812 
-14.0858 -0.16525 1.12938 
-12.9774 -0.163063 5.10124 
6.62592 -0.0916286 7.479 
-10.1244 0.264244 -19.2827 
1.82859 2.05595 -22.3312 
-0.556193 5.2334 -26.927 
3.72184 1.04796 2.85098 
-10.1534 4.53313 -15.881 
9.16763 2.84012 -7.57731 
-8.33238 2.45713 4.87345 
-9.51752 2.8427 -2.97871 
2.80488 1.62903 4.04317 
-7.84636 2.80608 3.83155 
8.04901 3.43652 6.38926 
-7.56112 2.8688 3.35142 
-4.48173 3.41837 8.40014 
-5.51154 3.23855 6.76011 
-13.9213 5.92225 -3.2381 
-6.12399 -1.92419 -22.8064 
-10.5607 -0.83629 -4.09458 
-9.27963 -0.853832 -3.30613 
-1.34639 -1.98258 -4.47003 
0.648614 -2.95625 -20.2832 
-10.367 -0.798408 -3.28212 
5.54361 -4.04891 -24.2755 
-7.92482 -1.79146 -27.3205 
-11.3214 -0.690915 -3.44689 
0.424716 -2.19289 -4.92289 
10.1187 -4.58696 -21.5377 
11.5763 -4.58836 -20.2163 
-0.0949825 -2.01965 -2.82183 
-0.373625 -2.01624 -1.7187 
12.2015 -4.27862 -11.2746 
-14.9905 -0.221804 -3.13706 
1.28697 -1.5768 -4.73546 
-12.8291 -0.30304 0.765928 
-15.5739 5.39479 2.19468 
-15.97 0.0613105 -0.0348901 
-12.2089 -0.370482 1.39835 
-12.038 -0.37662 1.50531 
-9.38904 -0.648877 1.72946 
-0.320087 -1.80124 1.50473 
-12.2186 -0.300341 4.07772 
-9.0596 4.57698 -22.4997 
-9.57404 -0.555372 6.8864 
-7.39947 -0.59887 7.98535 
-0.0493293 -1.30037 10.4483 
2.35414 -1.58429 11.1733 
2.11267 2.52316 -24.7288 
8.94385 2.36151 -25.0743 
-10.3166 2.83493 -16.4619 
2.44082 3.68509 -26.6255 
2.57933 3.79507 -26.3391 
9.83796 3.71346 -24.585 
-11.4554 3.4793 -15.8916 
-15.2452 3.62507 4.09092 
-7.85885 1.90838 1.85621 
-12.5935 3.12846 4.7728 
9.66009 -3.66806 -7.75615 
-5.53262 2.22369 3.02425 
-16.7899 4.91209 3.50011 
-14.6831 4.35403 3.57949 
4.22171 2.21202 -1.28728 
3.46743 6.33461 -23.8876 
6.60195 5.54697 -20.0044 
-10.0523 5.01695 -17.0616 
-13.9634 4.76794 3.4944 
4.22101 6.58017 -21.9273 
-9.99569 4.79648 6.8809 
4.38796 3.00199 -0.776098 
8.14291 6.56516 -19.9874 
-15.7854 5.69851 2.32855 
-14.4857 5.54752 3.93627 
11.2866 4.47314 -5.51102 
6.1586 5.03683 8.10949 
2.91474 3.67322 3.05498 
7.11209 4.73461 5.79165 
3.92694 -2.4596 -0.60705 
7.17226 -3.41538 -9.71395 
6.73942 -3.4438 -10.5886 
-0.713211 -1.88936 0.788569 
-3.39386 -1.47213 -0.463117 
5.10013 -2.61003 0.378149 
-14.5513 -0.338954 -5.3681 
-13.7297 -0.175451 1.41922 
10.969 -4.46741 -18.0557 
6.73602 -4.08246 -24.7731 
8.9714 -4.38475 -20.4317 
-17.6881 0.325363 5.42768 
4.65142 -2.31912 4.78068 
-6.99672 -0.654899 8.06491 
16.662 -5.10344 -15.5768 
1.82961 -1.65315 8.94569 
15.0477 -4.25962 -8.05725 
15.3741 -4.23783 -8.90798 
2.18415 -1.73648 9.79291 
18.0556 -4.81742 -8.19663 
2.07857 -1.64746 11.3543 
19.0117 -4.89999 -7.54024 
18.8721 -4.87042 -8.83553 
19.1086 -4.74502 -4.90535 
16.0609 -3.72793 -1.30967 
-9.48857 2.08962 0.711426 
-12.3564 2.73949 7.05852 
10.0555 -0.586801 -24.773 
-10.2638 3.1735 2.42908 
-7.93644 2.79693 1.203 
-10.1376 3.40966 4.21895 
-8.41325 3.38351 2.77484 
-9.35662 4.07097 -17.3897 
-11.1454 4.70084 -17.2727 
-11.3156 4.65045 6.88269 
3.0924 0.737447 2.82414 
-10.4308 4.78713 -12.0811 
8.94511 1.96593 -25.9412 
-9.32223 5.01588 -16.8794 
-6.11089 4.26521 7.99385 
0.0300587 3.92498 -24.4694 
10.0769 2.42127 -25.018 
10.4731 2.92226 -24.1037 
0.453459 1.45503 -0.161628 
-4.79722 4.70289 5.99439 
3.97014 5.30128 -25.7751 
1.74301 5.13952 -23.8903 
1.23812 5.88006 -25.7408 
7.6672 2.37343 5.86933 
4.81919 -2.73425 -4.30207 
4.5198 6.55023 -22.9975 
3.70076 2.43025 2.58932 
6.62953 3.67309 6.61643 
8.41186 3.32722 6.16089 
0.984335 -3.18694 -23.3275 
0.936912 -1.98945 3.35409 
-13.3703 -0.396913 -4.6792 
11.6188 -3.79906 -6.07543 
-14.3913 -0.0492418 4.22747 
12.3112 -4.28267 -11.44 
11.4507 -3.54459 -1.77123 
12.8046 -3.94178 -5.96733 
13.5295 -4.02619 -5.67 
8.22173 -2.7188 3.96069 
13.5737 -4.49783 -13.1918 
5.07782 -4.11951 -27.2097 
5.66028 -2.24621 8.24872 
15.8452 -4.75553 -12.6182 
3.07166 -2.04981 3.92282 
-12.627 2.66781 6.83901 
-7.27307 3.17477 4.13364 
-12.5375 5.64262 4.43941 
2.89158 1.07439 -24.1999 
-6.20787 4.00629 1.98746 
-0.0683132 3.19399 -23.709 
1.5472 2.19929 1.23897 
3.1483 3.13364 -26.6478 
0.985274 1.74682 -1.10916 
5.69098 3.30103 7.62561 
4.05476 2.37579 2.663 
1.87742 4.24953 -26.6536 
2.97123 2.96453 3.47069 
-8.45712 6.62835 -2.23331 
-0.0643861 6.01407 -26.7062 
3.46985 3.06463 2.26796 
4.22999 2.3619 0.402298 
3.03468 2.44177 -0.463638 
2.52638 5.44356 -23.9134 
-6.41999 6.86019 -0.350884 
-6.27577 6.92751 -0.502958 
3.30872 -3.29804 -18.0672 
3.51795 -3.13463 -15.4055 
3.65223 -3.05097 -14.5446 
1.59745 -3.12969 -21.0548 
-9.60337 -1.22256 -13.378 
-9.75152 -1.20258 -13.022 
-9.57629 -1.18399 -12.7743 
3.78082 -2.84655 -9.22387 
-7.57473 -0.547156 -11.5679 
12.8057 -4.18988 -9.18004 
9.36558 -2.9439 -11.7038 
-2.28414 -2.98359 -29.7068 
-7.59581 -1.63238 -28.2026 
-15.8559 2.87781 4.24244 
-14.7348 2.93178 5.78572 
-2.04191 -1.49757 -28.9849 
-6.2078 3.32823 2.05571 
-2.32394 -2.03126 -8.33432 
-16.4497 6.36188 4.41065 
7.26588 3.71577 5.72381 
-7.57582 3.78972 -3.81018 
-15.1403 6.32802 -1.40092 
6.92078 4.75649 4.5964 
10.2152 3.8298 -0.0303999 
2.1783 3.44013 -4.95265 
10.9928 3.3344 -4.93061 
0.966767 -0.337886 -26.4214 
11.3127 5.397 -6.96645 
10.5532 2.56031 -23.9804 
-12.6748 -0.570965 -9.80983 
-10.125 -1.38283 -19.8372 
-1.85696 -1.75721 -0.561673 
1.6076 -2.16582 1.28611 
3.21741 -3.17713 -17.6488 
-12.6251 -0.256883 3.37697 
-5.45792 -0.784958 8.81417 
6.45319 -2.57015 5.67133 
12.9238 -3.74497 -1.50819 
3.49947 -2.83448 -18.7928 
4.5183 5.63313 3.57903 
7.3383 -4.25582 -26.4404 
-0.386524 -2.68062 -26.6137 
-16.4983 2.97469 4.12008 
7.59587 0.227829 6.90965 
-0.844542 -2.51563 -27.2647 
-1.04536 -2.53145 -27.5233 
-8.29421 -1.61334 -26.8647 
-16.3233 3.20949 -0.02668 
-6.81605 2.56243 1.88338 
-7.16074 3.03625 2.71167 
-12.6503 5.09661 6.00621 
11.1927 2.84407 -5.32546 
0.0826222 0.0421538 -26.66 
-7.30542 5.47758 -0.720847 
3.62677 6.43683 5.24899 
10.6386 1.37918 -25.0102 
5.77939 4.4582 -4.26916 
10.2425 1.75803 -24.8092 
-8.22025 5.21349 -4.22278 
8.6353 4.71827 -8.26726 
-10.4191 3.7581 -11.9847 
-13.292 -0.601388 -9.94314 
-10.2787 -0.80092 -4.19022 
-14.654 -0.355794 -4.98639 
0.626945 -1.88366 2.58571 
-14.8954 -0.149665 -2.71614 
-14.5526 -0.136308 -1.62974 
4.04035 -2.08405 5.17899 
-12.9489 -0.220412 3.90858 
1.52678 -1.09956 -4.75616 
-16.8707 0.267901 2.16417 
-15.3426 0.0730145 4.48942 
-17.5658 0.340186 4.10801 
3.75879 -2.47995 -23.5108 
-17.3491 2.68337 2.99185 
-17.4945 3.29298 3.49574 
-17.3345 3.58431 4.02126 
-11.7091 3.50085 6.90164 
1.12166 2.10506 1.11935 
2.96669 2.10371 -0.799455 
0.571804 -1.95621 -1.69728 
-14.7612 4.36 4.52183 
-15.9533 4.75042 4.26783 
-15.2878 5.04202 3.33703 
-12.3991 5.0495 6.0915 
-17.7109 5.61024 3.67202 
-14.9614 5.45836 3.00081 
-4.46596 4.92475 5.22231 
10.2824 3.64234 -23.7031 
9.43971 4.75877 -24.7817 
-6.00368 6.37086 -1.51243 
-11.4703 5.9669 -0.311564 
-13.1085 6.03488 -2.24927 
1.84023 2.35137 -0.861665 
-0.0110322 5.62884 -26.7804 
3.46718 -3.26817 -18.2299 
4.81819 -3.34141 -16.6598 
-7.72109 -1.50504 -13.0254 
2.08744 -3.10558 -20.634 
5.82078 -3.46117 -15.3999 
2.00739 -3.18273 -21.063 
-8.47593 -1.45719 -13.5002 
12.7619 -4.72157 -21.9638 
-8.58108 -1.37358 -15.4753 
-8.60217 -1.35537 -15.11 
-5.93903 2.85745 2.00484 
-9.83935 -1.30225 -13.0267 
-9.54266 -1.22879 -12.6241 
-8.11968 -1.11427 -12.4449 
11.1083 2.66491 -5.63261 
-0.834697 -1.94026 -1.83893 
11.16 -3.62521 -4.51325 
13.7817 -3.85309 -9.18828 
-11.8987 -0.889282 -12.6011 
3.60369 -2.07501 6.69588 
9.65855 -4.57076 -24.5228 
-3.03528 -2.53354 -24.5876 
-14.5156 0.00952666 7.09025 
-1.26714 -2.83329 -26.6758 
-1.62062 -3.06157 -27.5505 
0.636977 -2.80649 -26.9739 
-2.85381 -2.32121 -28.5027 
-3.19192 -2.35648 -29.1998 
-12.9678 2.81006 2.65261 
-16.7266 3.72656 4.34098 
-10.0779 4.26029 6.1826 
-8.65468 4.57708 4.74543 
-15.2442 4.98847 2.87869 
-9.12013 3.37465 -2.25967 
-8.93512 4.74146 4.44811 
6.90465 4.12473 5.9657 
-16.5928 5.59653 3.31835 
-7.32339 4.59259 2.12734 
4.5302 4.2427 3.54502 
5.6153 6.16751 7.91321 
5.44461 3.40508 -3.56502 
0.211473 -0.283761 -26.4618 
-14.7039 5.99351 -3.05265 
-5.88353 6.37408 1.53071 
-13.7484 6.67084 -1.77814 
11.597 4.49089 -4.4494 
-10.2376 -0.62796 0.0652745 
10.1784 1.92885 -25.0103 
9.55036 1.76393 -24.7717 
0.2628 0.665568 -23.4801 
11.2994 5.40927 -6.1643 
1.14839 -2.1475 -0.707923 
3.64522 1.48509 -23.9671 
10.7084 2.9878 -23.8593 
0.223092 1.5006 -26.2362 
-8.27548 1.82858 -17.7725 
-10.4564 3.56193 -15.4585 
1.6419 1.35254 -23.2425 
-8.84885 5.65703 -7.76476 
10.4974 3.46554 -24.1007 
2.62848 2.05097 -25.997 
10.4207 3.67192 -24.4986 
9.67989 3.56863 -24.4723 
1.38921 -2.17597 -2.26679 
0.0913226 -2.04446 -2.5458 
0.0872514 -2.02849 -2.1046 
4.55443 -2.55734 -2.11779 
1.0738 -2.15056 -1.20898 
4.97289 -3.21978 -14.964 
-0.0609261 -2.02035 -1.07544 
4.88885 -2.62394 -1.38165 
7.19645 -3.50768 -13.929 
9.31005 -3.42349 -6.70512 
3.86047 -3.20418 -16.4448 
-1.38179 -1.86428 -0.774518 
0.0937461 -1.98503 -0.350469 
1.49741 -2.13765 -0.33493 
9.59968 -3.52679 -6.70169 
4.77823 -2.61962 -0.498525 
10.8561 -4.06924 -11.2647 
7.06387 -3.66494 -16.6967 
6.27056 -3.49568 -17.3887 
11.2914 -4.01619 -10.1837 
9.53665 -4.13655 -16.2719 
8.92433 -4.13968 -18.0753 
4.81954 -3.47924 -20.7108 
12.1371 -4.28883 -12.389 
5.37527 -3.69009 -21.6968 
-9.43833 -1.29651 -15.5785 
11.4208 -4.70735 -17.9591 
11.1184 -4.6594 -18.2709 
10.8181 -4.65402 -18.845 
-11.9978 -0.615362 -2.84215 
12.2252 -3.94125 -6.95023 
12.7759 -4.01785 -7.72337 
13.4354 -4.44638 -11.7133 
5.38799 3.63591 7.3669 
8.20292 -4.09203 -23.5567 
11.7487 -4.56414 -21.1515 
-16.7404 0.122895 0.850327 
16.1063 -5.11079 -14.6795 
1.32213 -1.81167 4.41593 
-6.67996 -0.72503 5.56373 
10.2836 -3.22951 1.1457 
17.7793 -4.74237 -7.82733 
17.7888 -4.77601 -8.1561 
1.10913 -1.68685 7.50119 
9.41549 -2.915 2.74763 
12.9491 -3.64813 0.239799 
13.1014 -3.52974 -2.59172 
9.84218 -3.00478 -25.4097 
14.1114 -3.74529 0.090226 
2.17289 -1.65067 9.65781 
1.02196 -1.41071 12.081 
9.62175 -2.13799 -12.781 
-7.92363 1.2709 -18.332 
-16.6719 2.75588 3.51363 
-10.9481 3.25702 -16.5688 
-15.0759 3.73814 3.77167 
-9.5335 2.48485 2.2271 
-8.37051 2.11128 2.20751 
3.06537 1.22532 -24.6754 
-9.97544 3.66798 -17.5297 
-16.6992 5.78279 3.37352 
-11.2934 4.67804 -17.0593 
1.88904 2.60158 -25.0247 
-0.367103 3.02837 -24.8919 
4.6752 0.904375 8.80994 
1.26596 2.47177 -22.3222 
-10.0229 5.04024 -18.589 
10.5718 1.42997 -24.2881 
3.33032 2.38125 -23.6804 
1.68265 3.5731 -25.6432 
-0.678819 3.71753 -23.824 
-0.0868436 4.46739 -26.7816 
8.41545 2.82547 -25.0279 
3.4205 4.16666 -24.6142 
9.85712 4.00135 -25.1763 
9.60009 4.28539 -24.8217 
9.83177 4.15977 -24.2587 
2.79656 5.17886 -23.4286 
4.73288 6.41403 -26.0635 
4.06595 6.26501 -25.6007 
2.27529 2.42855 1.53692 
5.39231 3.58711 7.11844 
3.00733 6.09645 -23.8266 
-7.76653 6.42426 -0.376549 
14.376 -4.79593 -16.892 
-6.86426 -1.66487 -17.0326 
-7.90627 -1.66833 -20.3792 
-11.6022 -0.567027 -4.96571 
-2.60813 -1.73724 -2.34945 
2.56354 6.47282 -23.6775 
-9.95867 -1.5916 -21.1168 
-14.2353 -0.491569 -7.72153 
-8.91224 6.17191 -8.3467 
-9.38928 -0.830461 -3.03628 
-1.25313 -1.89501 -1.89964 
0.154516 -1.92156 -1.25321 
-9.07838 -1.78024 -24.5015 
-11.5794 -0.45386 -1.99421 
12.7881 -3.69388 -1.40983 
-15.359 -0.204945 -4.35884 
1.85802 -1.627 1.72759 
-15.0474 -0.243402 -3.26254 
-14.8539 -0.149164 -3.09968 
-14.4608 -0.265033 -2.78044 
-14.3405 -0.158721 -2.59515 
-14.1967 -0.165462 -2.49401 
0.803479 -1.62552 6.6104 
-15.3688 -0.0221235 -0.96217 
-16.0571 2.9686 2.92192 
-6.41083 -0.547343 5.71489 
-13.8318 0.0137785 4.80194 
-8.9355 1.35837 1.8433 
5.44791 0.684975 -0.93553 
4.81431 0.880042 -1.90062 
-15.7252 2.23399 2.43348 
-13.3647 2.20747 2.87512 
3.82487 0.970535 -25.0054 
8.06197 -3.20166 -5.8215 
-16.3271 2.82435 0.343371 
1.17295 2.64628 1.7949 
-0.505883 -2.3401 -11.76 
-13.0648 3.1714 1.95821 
6.20051 3.76056 6.77296 
-1.18787 -2.89866 -23.2642 
-6.40095 3.2191 2.46548 
11.9185 3.23958 -3.63074 
-16.5969 4.47736 4.20285 
-5.70615 4.4458 7.98598 
4.94129 2.68568 -4.15288 
8.81027 2.84049 -8.05235 
1.70588 2.56821 -25.6349 
-7.16424 -0.83566 2.28232 
4.06924 5.30414 9.19609 
4.09299 4.38378 4.21556 
-13.3795 4.566 2.57245 
-8.64734 2.60531 -4.03291 
9.84756 4.17804 -25.389 
-16.0534 4.15704 -0.80206 
-15.4159 4.90511 2.03227 
-13.5116 5.19792 3.34251 
-11.1387 -1.13047 -13.3761 
10.3278 4.56523 -6.09249 
-1.38806 3.55974 -24.9714 
2.94663 4.1856 -24.1514 
11.7348 5.54268 -6.48351 
-13.0662 4.43781 -2.27686 
-12.4553 6.55392 5.58915 
8.44313 -2.97222 1.43372 
11.6011 6.03351 -6.22005 
1.12095 4.93092 -26.2597 
11.8427 6.38764 -5.24157 
-7.29632 2.63514 -18.6812 
-7.73793 2.67967 -18.4295 
12.1088 6.57231 -10.094 
7.82403 5.65077 -20.1991 
1.73331 5.17475 -23.5272 
1.5314 5.47703 -25.1144 
-10.8168 -1.07465 -11.962 
-16.3131 6.23603 -0.0373824 
-0.801428 5.77983 -26.3387 
-9.83147 3.32144 -19.2928 
-9.61332 5.14899 -1.09068 
-15.5854 0.160265 2.25228 
8.50239 6.50597 -19.8346 
8.29132 6.72982 -21.186 
-11.4115 5.81908 -0.055804 
5.6819 6.44768 -3.29336 
3.61068 6.35217 -23.8052 
-7.30708 3.86592 -4.17653 
-6.90071 5.63605 -0.262202 
5.56991 6.54469 -3.93234 
3.37031 6.0207 -22.2295 
-11.0485 2.94761 -16.166 
-0.223447 -2.69709 -17.3173 
-2.02659 -1.86733 -3.5095 
-13.438 -0.559399 -9.32222 
-7.73542 -1.82562 -21.0479 
-10.9723 -0.701883 -3.9643 
-3.71298 -1.48169 -1.06241 
1.41639 -2.12933 -2.52306 
1.05646 -3.07723 -20.3824 
3.68135 -2.40983 -1.09326 
4.60034 -2.6091 -2.71093 
-10.2656 4.49935 -1.42221 
3.08137 -3.33018 -19.825 
-8.25817 -1.78981 -22.2048 
-9.66853 -0.530462 2.84459 
-9.35795 -1.70109 -22.4057 
-15.6329 0.0253277 0.220442 
-13.9618 -0.131594 3.27233 
-10.5643 -0.346451 6.00314 
0.0365767 -1.46994 8.50801 
0.210542 -1.49522 8.50863 
-8.41006 -1.80687 -23.5508 
-8.56048 -1.79591 -23.552 
-6.98766 -1.97536 -24.1242 
-8.62271 -1.83124 -24.1921 
-13.4952 1.49683 2.93078 
-8.53019 -1.75808 -26.8427 
-5.44559 -2.20883 -29.9095 
-16.881 2.88037 3.17289 
-14.5149 3.35334 2.65151 
-5.37257 -1.56867 -6.35287 
-14.1972 3.80927 2.63434 
-12.902 3.88264 2.79305 
1.92576 1.8154 -1.56869 
4.20267 -3.5241 -19.0168 
-9.78683 2.67037 -19.2646 
2.2317 2.47805 -0.654949 
7.7563 3.65022 6.00063 
8.63694 1.38262 -8.03091 
-14.8095 5.51169 3.60622 
5.53464 4.88697 8.21747 
-16.4141 5.7384 0.282465 
-13.063 4.579 -1.81145 
-5.50424 5.82243 5.59474 
-5.83028 -1.71184 -13.9341 
-9.84739 4.01402 6.99586 
6.88257 5.69434 6.43684 
5.18776 3.57513 -2.48997 
-13.2363 5.41162 -2.25221 
-5.102 6.89392 5.10944 
9.81287 1.52608 -25.0664 
0.0369597 5.50866 -26.5301 
10.6033 5.54337 -0.344382 
-10.2529 2.03861 -13.652 
-13.0298 6.66834 -2.36852 
-5.02814 6.85058 -0.198706 
-11.7335 2.4762 -15.5972 
5.37083 6.96109 -1.38615 
-8.46465 6.65969 -2.52492 
9.067 4.15541 -25.4572 
9.53257 4.57481 -24.3258 
2.70517 3.38388 -24.7488 
1.63438 -1.17139 -4.7749 
-4.14022 -1.55184 -2.71338 
4.3605 -2.87838 -7.79585 
8.34971 -3.1477 -2.55987 
8.48045 -3.1787 -2.55217 
8.50732 -3.138 -2.12837 
5.00034 -2.37408 3.93941 
1.87227 -1.94241 5.50218 
7.24286 -3.26102 -8.01519 
-0.270907 -1.49094 6.26241 
-6.37909 -0.737259 5.19571 
6.66138 -2.63971 3.9899 
-5.72257 5.49436 5.96438 
-9.35277 4.59454 -19.0034 
-11.0148 -0.531453 2.21004 
-4.68152 -0.934038 7.34686 
1.46862 -1.79835 7.50087 
10.3742 -3.47217 -3.61451 
-13.0512 -0.254245 2.03273 
0.106708 -1.58536 8.52824 
-10.6341 2.59213 -16.1791 
8.37605 -2.86191 3.17881 
8.1834 -3.09014 -7.19716 
-15.079 -0.0218375 2.4936 
-7.15246 -0.592438 8.78165 
-1.37491 -1.35809 9.41442 
3.1624 -1.88497 8.02017 
1.92467 -2.75168 -14.1061 
0.834674 -1.59369 9.97286 
3.21105 -1.88782 8.82855 
11.6251 -3.63416 -2.72554 
4.3332 -2.05148 8.74212 
4.45972 -1.91853 8.81301 
9.22871 -2.81536 4.73146 
5.6946 -3.79089 -21.0521 
11.2969 -3.34245 0.140942 
9.61825 -3.41695 -8.85675 
0.51855 -1.33265 11.7371 
0.679805 -1.43667 12.113 
10.5171 -3.06569 3.77996 
11.2174 -3.23918 2.48735 
12.538 -3.65542 -0.740359 
2.13604 3.60189 -23.5165 
4.00436 -3.22926 -16.4085 
2.41747 -3.00746 -17.3171 
13.5096 -4.07422 -5.54627 
-0.868539 -0.0787553 1.2748 
5.27047 -3.31671 -17.6984 
-10.6383 4.78479 -17.6194 
14.3962 -3.80927 0.823614 
15.2358 -4.3197 -8.03596 
-1.9776 -2.89657 -26.9576 
5.44528 -3.94255 -27.0873 
-3.80021 -1.32768 -20.2833 
3.34955 -2.7064 -23.3186 
9.706 -3.7655 -24.769 
9.99001 -3.44362 -25.2351 
-16.325 3.12817 0.656228 
-8.75228 2.36171 2.42841 
-9.22014 4.84442 -22.8811 
-9.06176 2.72061 -16.7885 
-0.185489 -2.71841 -26.0787 
-17.7888 6.2053 4.49276 
-9.52281 4.08377 6.89375 
-16.4858 5.69467 0.408975 
-12.8285 4.70209 2.03701 
1.87662 1.90142 -25.0457 
1.12107 1.84643 -23.5876 
-9.19764 4.08737 -19.1426 
10.1129 -3.06773 -25.216 
-0.76739 2.55906 -24.9515 
-9.05364 4.27884 -18.6552 
-5.4365 3.2402 2.93801 
-8.0656 4.10829 -16.7373 
-10.7627 5.03521 -0.405515 
-12.4088 5.64333 2.20157 
2.61691 -3.34416 -22.5727 
-5.89496 3.96997 5.72444 
2.76156 2.10962 -22.5978 
1.94291 2.24497 -22.2349 
-8.73603 4.89708 4.58218 
10.7774 1.37323 -25.0182 
2.60012 2.70267 -25.2906 
-9.55291 4.86639 0.456247 
13.4116 -4.08934 -6.54682 
5.09655 0.7405 -4.00957 
10.885 1.56251 -23.9981 
9.5003 1.80246 -24.9841 
0.127057 3.49519 -23.946 
-13.2216 6.68515 2.78677 
-4.02611 4.4041 8.5367 
2.16942 3.51278 -25.5843 
-0.355454 3.81128 -24.3297 
1.25828 4.43531 -26.4814 
-9.25652 5.23893 -1.91653 
-10.2499 6.52051 4.61271 
-8.30848 -1.25009 -10.4093 
5.26847 3.57046 -25.2659 
9.89842 -3.54662 -12.4093 
-0.0579894 5.30262 -25.1345 
-8.61383 5.63024 -0.00617218 
9.40285 3.85244 -24.6569 
-6.27579 5.09139 2.30271 
10.8803 4.28988 -24.795 
1.1249 1.99119 1.74718 
4.13069 6.37929 -26.0635 
7.54352 2.95835 6.84471 
-4.59724 6.11759 6.06587 
5.90488 2.78891 5.64567 
7.74933 3.12782 6.6527 
8.3272 3.19934 6.36484 
1.27016 1.91976 0.846421 
2.46495 1.96253 2.20808 
5.12347 1.81203 2.86628 
-9.45681 4.84668 -1.49794 
7.23678 -2.95806 -2.99964 
5.91711 -3.59157 -20.3033 
5.42421 -3.05117 -8.93988 
-1.06485 -1.61333 4.5276 
3.63961 -2.27954 2.11018 
0.976311 -2.03736 2.95449 
6.94594 -2.88132 0.299674 
1.90293 -1.93239 3.22125 
6.48869 -2.6707 1.4171 
8.07124 -3.55533 -9.37677 
2.06016 -2.74306 -13.4529 
8.99907 -3.39902 -7.61378 
-8.44396 -1.2436 -10.3964 
-8.0643 -0.988585 0.835611 
8.30793 -3.54908 -10.875 
2.93213 -2.91508 -15.3939 
-10.0831 -1.19007 -13.1825 
-1.262 -0.75355 1.11554 
-1.10813 -0.746965 1.01147 
-10.9636 -1.04817 -13.9737 
-3.17699 -1.29524 5.98492 
4.78858 -2.31041 4.84603 
-8.05164 3.21064 2.85314 
9.94335 -3.47856 -8.35376 
-13.3438 -0.250224 1.30498 
-1.1164 -0.617545 1.01467 
4.50734 -2.28912 5.50224 
-12.3291 -0.0405956 7.03081 
-8.57727 1.43989 -20.0271 
-14.7035 -0.0288337 2.6427 
-12.3322 -0.254794 4.39214 
0.559437 -1.64411 7.03598 
2.96465 -1.99376 6.59097 
5.70657 -2.41122 5.12149 
6.46734 -2.49753 4.35093 
8.9415 -2.95134 2.57479 
-13.1275 -0.28323 6.29781 
-9.08983 -0.523597 7.3648 
0.703107 -1.68498 7.75809 
6.98125 -2.63279 4.67579 
8.37917 -2.72008 3.28121 
10.0249 -3.14601 1.88213 
11.832 -4.12248 -13.0664 
7.36559 -3.95083 -20.46 
-12.067 -0.084148 7.48979 
-12.1429 -0.069144 7.88738 
9.54799 -4.2614 -19.7569 
4.80724 -3.82 -25.1426 
-5.23233 -0.85257 10.302 
-3.92922 -0.9897 10.2786 
6.56453 -2.99663 -6.63524 
6.73318 -2.4264 6.30699 
10.6305 -3.22265 2.79271 
4.55245 -2.73893 -4.94269 
-9.85145 -0.492522 -19.1227 
13.6073 -4.08004 -8.47223 
8.46344 -4.27068 -23.4693 
1.48901 -0.3003 -4.79067 
-1.43049 -1.22764 10.8059 
1.11505 -1.58787 10.2327 
8.6851 -2.66244 5.41959 
10.2484 -3.02162 4.51983 
10.6344 -3.06255 3.35537 
13.5576 -3.77924 -0.0479299 
13.5047 -3.75839 -0.174552 
-2.1642 -2.42176 -18.3264 
14.9817 -4.14055 -7.55359 
13.918 -4.11676 -8.03078 
1.21653 -2.08933 0.559918 
11.6239 -3.42404 2.73932 
15.9369 -4.97113 -13.2136 
12.854 -4.87525 -21.9469 
12.4331 -4.8561 -22.8982 
-0.0848321 -2.05712 -22.8075 
0.208523 -1.38316 11.459 
0.971601 -1.28837 9.30139 
1.4635 -1.58277 11.2228 
1.95926 -1.66124 11.0958 
2.57992 -1.74522 10.7795 
14.567 -3.93448 -0.227265 
14.5677 -4.07265 -9.13167 
-5.26082 -0.697888 -20.4567 
5.25489 -1.70596 6.16719 
15.4723 -4.01515 -7.17881 
-8.95842 4.6386 -16.9504 
0.0307006 -0.703963 -25.9425 
5.93381 -1.19009 5.88831 
-15.7554 2.94667 0.361944 
-16.0415 2.9531 0.704586 
-14.7765 2.77843 2.4341 
-8.75055 1.88478 1.28955 
-16.6009 3.44354 2.86691 
1.84881 -0.0489555 3.07187 
14.1346 -2.56597 -10.3595 
-4.73419 1.6718 -17.3656 
-17.0382 4.74124 2.95634 
2.0552 1.53529 -24.4203 
-7.74964 5.76416 -1.25206 
1.64148 2.09142 -25.342 
-9.8708 3.96089 7.34808 
-6.42389 3.02259 7.53757 
-5.67017 3.03552 7.38914 
9.99261 1.73424 -25.0683 
10.0703 3.71283 -24.34 
-0.951914 3.87374 -24.2067 
8.16838 -0.260617 -0.900538 
-8.11285 4.30351 4.02579 
-7.72759 4.30468 5.61562 
-6.57198 3.59615 2.45717 
2.47814 1.03827 3.41516 
-7.27287 3.94673 1.85113 
-7.44685 4.34696 4.75588 
3.72825 0.759948 3.46614 
2.12413 3.77081 -22.9297 
-9.07553 4.90961 -22.126 
-9.93429 5.00919 -0.901982 
-5.83404 3.66129 1.56053 
10.1037 2.93026 -24.3464 
2.42032 4.23447 -24.7117 
2.17851 1.30637 2.88916 
-8.21343 4.70176 -3.00165 
3.00648 4.71432 -24.1836 
-8.92478 5.16442 -2.4094 
-9.1814 5.33729 -0.0430169 
-9.64538 6.22603 5.73991 
6.39339 1.45947 6.07879 
8.82373 4.12724 -24.7881 
-7.79629 5.10841 3.05753 
-9.12245 6.27752 6.88036 
4.08463 4.82536 -23.5511 
2.28277 5.41573 -23.727 
-7.86589 5.3167 -7.93255 
-10.6003 0.833542 -12.7699 
-5.23968 5.0095 5.78835 
11.1482 -4.23318 -11.7639 
9.24726 4.73597 -24.6439 
-5.82732 4.43914 2.56069 
-7.6008 5.07995 -2.97535 
3.02639 5.92553 -23.8707 
2.55888 6.37845 -24.8973 
0.527573 6.39209 -24.1881 
-9.42481 6.24655 -2.22457 
-8.06325 5.60968 -0.199703 
2.88546 4.34073 -23.1277 
8.50157 3.67466 4.82539 
-7.83723 5.56482 -1.22076 
-7.91911 5.69079 -4.66035 
-8.2643 5.95856 -1.247 
9.08306 -3.7466 -9.54761 
-8.63386 6.31402 -1.87542 
0.367218 1.81636 0.242114 
8.04419 2.20328 5.70476 
-8.83809 6.67215 -1.84342 
-7.13329 5.74682 -0.32592 
-7.34669 5.88205 -0.187642 
-8.55181 6.58169 -2.58881 
9.0575 -3.3293 -3.80092 
-5.07095 5.70455 4.96408 
5.12984 3.02756 6.60622 
-6.27999 5.34604 -3.89612 
-7.43591 6.36212 0.558554 
-7.75348 6.80619 1.28168 
5.4288 2.82698 6.19997 
12.2928 -3.39933 0.730981 
2.36977 2.43142 3.19821 
5.76763 2.83512 5.73099 
-6.73658 6.04766 -1.84689 
-5.81479 6.79127 5.27531 
2.29386 2.43737 3.08976 
5.6554 3.30547 6.45661 
11.6823 3.6415 -3.0127 
9.49346 -2.81295 5.06813 
-10.4345 -0.901984 -9.04661 
-7.30145 -1.64874 -18.9733 
-8.07177 -1.5435 -18.8268 
16.0864 -3.82928 -1.70338 
-7.28629 -1.21745 -4.23687 
-8.22871 -1.54477 -19.6839 
-1.81319 -1.90508 -4.61983 
2.72969 -2.88218 -13.2867 
1.98388 -2.87662 -16.2805 
0.555748 -2.80846 -18.346 
-11.6162 -0.627718 -5.45824 
-0.203609 -2.79038 -19.3304 
-10.7912 -0.619774 -3.02183 
-3.17961 -1.58414 -1.22257 
-1.13955 -1.85708 -1.08483 
-6.45845 -1.87618 -20.8793 
-13.8613 -0.404071 -5.95814 
-14.0671 -0.359045 -4.45978 
-13.5485 -0.397589 -4.12917 
-13.3789 -0.361157 -3.89824 
1.43425 -2.06405 0.832452 
0.975346 -1.95282 3.05998 
0.523609 -2.90758 -21.5919 
12.3453 -4.15762 -10.0624 
-7.4788 -1.9472 -22.6636 
-15.7317 -0.00344211 -1.39846 
-15.1675 0.0033196 -0.51229 
-13.946 -0.152135 1.71849 
-9.99904 -0.477288 5.27211 
-2.74395 -1.30332 8.50209 
-0.536127 -1.49942 8.16928 
11.9127 -3.63969 -2.51497 
6.90501 -2.50767 5.58171 
2.78642 1.76042 3.35414 
-7.45329 -0.63178 -18.2433 
-14.2713 -0.0552522 5.39163 
-12.0209 -0.180966 6.59094 
5.99442 -3.03247 -6.25737 
1.65393 -1.57713 11.7505 
15.3207 -4.84071 -15.1297 
-8.77315 5.60267 -5.06693 
-8.66672 -1.82446 -23.4326 
-5.90838 0.726361 5.72817 
-16.4608 2.38153 2.02908 
-11.3174 2.18626 3.51295 
1.6953 0.572899 -4.80842 
1.55677 0.484969 -5.41785 
4.49536 2.09975 -0.644123 
-15.1171 3.25066 4.27872 
-12.9318 3.26555 2.91753 
1.13644 2.03902 2.43298 
-16.8583 3.85214 3.61124 
-13.5221 3.7074 3.52437 
11.1378 0.726706 -5.15709 
-13.1874 2.84524 -2.39107 
-14.2345 3.69866 2.71992 
-6.15664 2.89784 2.57792 
1.14241 2.25935 1.124 
3.70575 2.26013 0.403584 
-12.3952 4.12361 3.47636 
-12.1788 4.60351 6.62581 
-15.3385 4.60188 4.4429 
-13.2365 4.33304 3.3017 
-3.88184 4.32047 7.73602 
9.10788 2.36082 -1.47567 
-15.7135 4.20815 -0.485513 
-16.7492 5.05428 3.4433 
-13.1591 4.74095 3.18315 
-11.6351 5.27375 5.85638 
7.92581 4.16438 5.70558 
-16.5429 5.11794 0.993269 
-11.7716 5.8631 6.38808 
6.58238 4.50159 4.30684 
-12.1499 5.29502 2.73853 
7.0772 4.88624 4.27954 
1.7032 -2.77496 -13.533 
-5.43854 5.82224 5.09951 
4.5326 5.06693 3.77581 
5.5557 -3.89162 -24.5073 
0.806771 2.99776 -4.46449 
6.29112 3.36077 -4.05085 
5.94232 5.79508 5.47479 
8.4416 -3.54562 -10.6153 
10.8766 4.43752 -4.15751 
-10.4086 5.10825 -1.36356 
11.5476 4.50701 -5.21981 
8.89895 2.24713 -24.73 
-12.3156 5.99908 0.0857758 
-14.3746 5.68713 -3.15015 
11.49 4.30367 -5.83039 
1.03646 5.78189 -25.8459 
11.5258 5.73884 -5.51407 
1.55179 2.5545 -25.7434 
0.523782 -1.67076 7.4685 
5.14364 2.993 -18.4969 
2.98724 2.66693 -19.9271 
-4.50698 6.47177 -0.196503 
10.9495 6.45151 -5.04185 
9.97245 4.32221 -24.7225 
-6.08848 5.16527 -3.6167 
-6.16543 2.50852 2.4559 
-6.71749 5.43283 -3.99916 
6.069 6.91265 -3.43572 
1.85905 3.79068 -24.4005 
6.26 4.30635 -19.9311 
-8.84185 -1.39693 -17.0403 
10.5647 -4.65217 -23.4445 
-9.91588 -1.1788 -16.2077 
-11.7189 -1.16269 -14.9176 
-0.343593 -2.56994 -16.341 
-11.8745 -0.761746 -7.7411 
-9.30913 -0.992004 -5.82136 
1.97428 -2.35534 -23.8326 
2.59433 -2.93559 -13.3509 
2.49993 -2.98082 -16.5914 
3.46744 -3.2249 -16.7779 
-0.266804 -2.68638 -20.1333 
-13.4199 -0.472344 -10.8061 
-13.3407 -0.460506 -10.2795 
-13.4726 -0.465641 -9.96122 
-11.5717 -0.666913 -6.42009 
-13.0426 -0.596135 -7.47647 
-2.9968 -1.72567 -3.54591 
-7.01161 -1.9462 -22.2698 
-13.8032 -0.510905 -8.88743 
-12.7131 -0.637033 -6.58752 
-8.29949 -1.12444 -19.4021 
-13.6248 -0.496755 -8.03429 
-0.833329 2.8729 -25.1869 
-9.07755 -0.83327 -3.54143 
-3.82365 -1.57515 -1.82703 
-0.351847 -1.91893 -2.43622 
9.11321 -3.83058 -10.4441 
-8.22474 -1.7747 -24.0266 
-11.3017 -0.597328 -4.56866 
0.122497 -2.0388 -1.78184 
-1.18502 -1.49765 5.29532 
-9.05754 -1.78305 -24.9535 
-14.2357 -0.460757 -7.45503 
-9.55891 -0.832856 -2.71226 
-2.41318 -1.56835 -1.07013 
0.316825 -1.97998 -0.927652 
3.34143 -2.30018 -1.55852 
-10.9802 2.52135 -16.5884 
10.6327 -3.52405 -3.56655 
13.8598 -3.93815 -6.28505 
-9.22501 -0.819445 -2.18676 
-0.635538 -1.79857 0.183296 
12.9045 -3.73466 -2.09719 
-13.4968 -0.450941 -5.46253 
-2.05393 -1.51826 0.387196 
5.38233 -2.6441 0.847372 
-6.25769 -1.93631 -28.9736 
-7.7825 -1.70531 -26.6647 
0.374587 -1.90021 2.31127 
7.33159 -2.75523 2.29062 
9.4177 -3.05781 2.11337 
-14.2591 -0.408151 -5.08079 
-14.1165 -0.379955 -4.88825 
-13.9919 -0.414326 -4.67209 
-12.9234 -0.447898 -3.73764 
4.1419 3.3698 -1.24841 
-14.8368 -0.346377 -4.8249 
-14.6881 -0.319548 -4.69929 
-13.8194 -0.35306 -4.06541 
3.32926 6.41826 -23.9777 
-13.3486 2.82926 -2.37775 
0.791208 -1.66813 5.70268 
-13.214 -0.34922 -1.11744 
-7.28081 -0.922728 1.04024 
3.67272 3.86206 -24.5589 
-15.3098 -0.257163 -2.94467 
-14.4447 -0.217984 -2.10499 
-0.548583 -1.46676 8.84054 
0.978341 -1.49717 9.32695 
-15.5294 -0.054061 -1.95591 
-14.5213 -0.229411 -0.543898 
-14.2458 -0.202894 -0.181922 
-13.9475 -0.181684 0.11426 
-4.78654 -1.95036 -16.3598 
-9.50009 -0.546954 4.6914 
-2.79331 -1.04407 9.5165 
0.397856 -1.30286 11.0336 
0.685349 -1.42189 11.2682 
2.947 -1.75183 8.41858 
-12.9923 -0.258772 4.39756 
0.0827569 0.121889 -24.5654 
-13.6648 0.279508 1.41875 
0.0248452 0.0173058 3.47208 
